 7.305033  8.388096  8.159496  8.159496  8.189976  8.291150  8.317992  8.625839  8.933688  9.012936  8.571836  7.110984  6.993633  6.991642  6.978062  6.967429  7.571232  7.741920  7.778496  7.568184  7.616952  7.245096  7.623048  6.931152  6.830568  6.839712  6.806184  6.923921  7.007508  6.973824  6.979920  6.888480  6.406896  6.406896  6.495288  6.943344  6.834247  6.930634  7.359287  7.598680  7.817363  7.747545  8.052816  7.940040  7.529513  8.488680  7.967472  8.354568  8.342376  8.382000  8.591289  9.062683  5.972980  6.691096  8.887279  8.475237  8.360664  8.650224  8.948928  9.217152  9.473184  9.564624  9.881616 10.198607 10.079736  9.957815  9.884664  9.863328  9.793224  9.860279  9.619488  9.256776  9.717024  9.784080  8.894064  8.189976        NA
 7.808976  7.507224  7.997952  8.007288  8.007096  7.988808  7.997952  8.698834  8.875776  8.784336  8.232648  7.982712  7.540752  6.918960  6.946392  6.961717  7.651367  7.653528  7.549896  7.708392  7.467600  7.516368  7.403592  6.812280  6.742176  6.739128  6.669024  6.608064  6.605016  6.754368  9.393442  6.202680  6.169152  6.239256  6.467856  6.626352  6.784848  7.619750  7.146636  7.668768  7.543499  7.446264  7.824139  7.351776  8.010831  8.041426  8.207808  6.959984  8.361419  8.674607  8.891016  6.409944  7.283267  7.610688  8.756904  7.894320  8.083296  8.369807  9.430512  9.238488  9.204960  9.476232  9.841992 10.131553  9.820656  9.617048  9.476232  9.515856  9.415272  8.863584  9.101328  9.098280  8.488680  8.985504  7.933944  8.881872        NA
 7.729728  7.208520  7.861521  7.918704  7.867428  7.808976  7.848600  8.400288  8.607552  8.418594  8.385048  7.223760  7.101840  6.976084  6.818376  6.915912  7.656576  7.385304  7.502517  7.594210  7.549896  7.418832  7.245096  6.736080  6.669508  6.668573  6.600102  6.528816  6.428232  8.857488  6.808554  6.833616  6.550152  6.568439  6.608064  6.635496  6.644639  6.925056  7.220712  7.719755  7.949184  7.667434  6.986016  7.920326  7.943806  7.982712  8.341458  8.430292  8.835424  5.805485  8.214360  8.351520  8.429559  8.488680  8.796528  7.876032  8.025384  8.253983  8.601456  8.833735  9.299448  9.387839  9.915144 10.433304  9.890665  9.680448  9.540239  9.046464  8.884920  9.253728  8.863584  7.171944  7.470648  7.997952  8.633311  9.284207        NA
 7.624671  7.818120  7.647432  7.699248  7.729728  7.647432  7.598664  8.369807  8.244207  8.238744  8.046850  8.293608  7.434072  7.653528  6.744889  6.818376  7.507224  7.406640  7.434072  7.452360  7.216955  7.199376  7.217664  6.687312  6.586728  6.553200  6.513576  6.461760  6.358128  6.297168  6.647688  6.693408  6.940110  6.601968  6.681216  6.647688  8.138160  6.516623  7.973568  7.715821  5.370576  7.738293  7.616952  7.584194  8.086140  8.283892  8.569560  8.580120  8.808720  5.830477  8.763274  8.667488  8.461248  8.281416  7.857744  8.177784  8.147304  8.424672  8.969730  9.482328  9.644251  9.549384  9.686544  9.875521  9.713976  9.464007  9.281160  9.159240  9.378696  9.415272  8.744712  6.531864  8.510015  9.009888  9.198864  9.427464        NA
 7.537704  7.729728  7.467600  7.427976  7.549896  7.479792  7.507224  7.498080  7.629144  7.738872  7.956743  7.647432  6.925056  6.948737  6.772656  6.620071  7.488936  7.476744  7.455749  7.424928  7.281672  7.171944  7.159752  7.217664  7.165848  6.995160  6.553200  6.640189  8.202168  6.440423  6.559296  6.626352  6.635496  6.672072  6.601968  6.681727  5.827776  6.081325  7.684712  7.363968  7.615441  7.562462  7.239000  8.106079  8.025384  8.133621  8.284464  8.302752  8.500872  6.017936  8.446008  8.557405  8.162795  6.931152  7.991856  8.388096  8.769096  8.796528  9.113520  9.332944  9.430512  9.439655  9.418320  9.427464  9.393936  9.314688  9.171432  9.189720  9.159240  8.868070  8.104632  6.245352  8.171688  8.842248  9.259824  9.119616        NA
 7.357872  7.629144  7.229856  7.258952  7.288498  7.299960  7.309104  7.418832  7.488936  7.559040  7.738872  7.470061  7.408087  6.602949  6.675120  6.723888  7.440168  7.348728  7.348728  7.226808  7.196328  7.254240  7.171944  7.071360  7.059168  6.844090  6.784848  6.793057  7.738054  6.382512  6.440423  6.507480  6.537960  6.595872  6.644639  6.751320  5.269992  7.326198  7.318248  7.315200  7.193280  7.254240  7.053243  8.050745  7.156516  8.287754  7.545160  8.409538  6.809620  7.580376  7.857744  7.757160  7.126224  7.074408  8.211312  8.790432  8.729472  8.981494  9.275064  9.485376  9.631233  9.710928  9.570720  9.448800  9.137904  9.086088  8.872728  8.872728  9.180576  8.549640  8.348472  6.117336  8.324088  9.302496  9.232392  8.348472        NA
 7.668768  7.299960  7.348728  7.479792  6.848856  6.547104  6.769608  7.318248  7.397496  7.537704  7.659624  7.321296  7.606157  6.633277  6.743554  6.759302  7.321296  7.242048  7.309104  7.208520  7.275576  7.180311  7.076175  6.982968  6.879336  6.629400  6.748272  6.696456  6.653784  6.123432  6.321552  6.339840  6.169152  6.275832  6.523198  6.583680  6.641592  7.085742  7.275713  7.214942  7.077456  7.223760  8.188404  8.010144  8.238744  8.436864  6.217920  5.876544  7.894320  7.141464  7.699248  8.348472  7.226808  8.165592  7.964424  8.004048  8.470392  9.049512  9.497568  9.567672  9.165336  9.034272  8.772144  8.659368  8.659368  8.988552  8.985504  9.130468  8.942832  8.799576  7.050024  5.928360  8.775192  9.156192  8.833104  7.930896        NA
 7.568184  7.559040  7.269480  6.958584  6.589776  6.034117  6.352430  7.178040  7.318248  7.437120  7.537704  7.632192  7.159728  7.014857  6.827520  6.876288  7.245096  7.153656  7.080504  7.040880  7.187184  7.086600  6.986016  6.903720  6.842760  6.821424  6.748272  6.594790  6.665976  5.745480  6.099675  6.132576  6.239256  6.327648  6.227064  6.486144  6.565392  6.611112  6.681216  7.050024  7.462818  9.125712  8.061497  8.193024  7.150065  6.979709  5.879592  8.156448  7.474410  8.065007  8.281416  7.924974  7.958328  8.378952  8.814816  8.775192  8.863584  9.092184  9.329928  9.159240  8.695944  8.695944  8.653272  8.613648  8.601456  9.137904  9.147048  9.055608  8.205216  6.562344  5.281474  7.988808  8.897112  8.586216  8.503920  8.482584        NA
 7.757160  7.668768  7.647432  7.315876  7.309104  6.498336  6.019800  7.168896  7.229856  7.379208  7.467600  7.559040  6.071616  7.055016  7.107936  6.998208  7.126224  7.083858  7.013448  6.982968  7.110984  6.967728  6.915912  6.845808  6.766814  6.492240  6.690360  6.550152  5.507736  8.611050  6.205728  6.224016  6.291072  6.370320  6.428232  6.593121  6.446520  6.464808  6.571488  6.589776  6.690360  6.537960  6.548337  6.814873  6.969951  5.779617  8.119872  7.964643  7.708392  7.784592  8.144256  8.263128  8.011792  8.330184  8.449056  8.634984  8.894064  9.113520  8.900160  8.830056  8.668512  8.537448  8.266176  8.263128  8.851392  9.259142  9.052384  8.628888  7.885176  8.305799  5.282184  6.230112  8.208264  7.638288  7.787640  8.394192        NA
 7.537704  7.549896  7.659624  7.388352  6.848856  6.787896  6.146873  6.522330  7.129272  7.229856  7.309104  7.427976  7.284720  7.223760  7.391400  7.339584  7.046976  6.986016  6.833616  6.882384  6.982968  6.870192  6.858000  6.696456  6.687312  6.553200  6.592824  5.931407  5.602058  6.129528  6.143929  6.224016  6.342888  6.391656  6.489192  6.550152  6.626352  6.406896  6.364223  6.461760  6.656491  6.483621  6.599297  6.809252  7.033202  6.126913  8.083296  8.019288  7.739245  8.226552  8.116824  8.193024  8.382000  8.162544  8.250936  8.787384  9.006840  8.644128  8.482584  8.281416  8.119872  7.643130  8.116395  8.555736  8.894064  8.951976  8.650224  8.689848  8.497824  8.077200  7.324344  5.259964  5.480304  7.120128  8.237887  8.077200        NA
 7.367016  7.467600  7.397496  7.129272  7.194150  7.537704  6.867144  5.907024  7.098792  7.168896  7.178040  7.217664  6.979920  6.748272  6.717792  6.699504  6.778752  6.906768  6.446520  6.355080  6.254496  6.217920  6.217920  6.169152  6.227064  6.164906  6.168771  8.185156  5.489448  6.181344  6.318504  6.336792  6.416040  6.483096  6.583680  6.601968  6.650736  6.708648  8.455152  6.275832  6.412992  6.552161  6.652751  6.836209  5.723485  7.931830  7.885176  7.842504  7.769352  7.729728  7.836408  8.634984  8.220012  7.961376  7.912608  8.666054  8.897112  8.497824  8.156448  7.604760  7.263384  8.098707  8.698992  8.887968  8.705088  8.753856  8.763000  8.540496  8.378952  8.537448  7.077456  5.526024  5.283087  7.883184  7.760208  5.295317        NA
 6.669024  6.949440  6.918960  6.769608  7.629144  7.117080  6.063534  5.835310  6.663576  6.909816  7.019544  7.037832  6.432789  6.547104  6.559296  6.589776  6.217920  6.227064  6.178296  6.187440  6.147816  6.138672  6.138672  6.099048  6.169152  6.156960  6.096844  5.676260  8.369807  6.150864  6.190488  6.248400  6.318504  6.406896  6.504432  6.522720  6.620256  6.650736  7.476744  6.166104  6.236207  6.359602  7.004764  7.097970  7.829764  6.248400  7.406640  7.565136  7.693152  7.812024  7.830312  7.848600  7.675112  6.355080  8.333232  8.442960  8.330184  7.936992  6.687312  7.455408  8.302752  8.503808  8.954887  8.678003  8.107680  8.586216  8.574023  7.991856  8.202168  8.729472  8.747760  6.556248  5.272230  7.162800  5.852160  5.286599        NA
 6.647688  6.018631  6.427034  6.397752  6.867144  7.348728  6.382143  5.769864  6.017881  6.678168  6.687312  6.787896  6.528816  6.467856  6.477000  6.498336  6.129528  6.147816  6.138672  6.089904  6.117336  6.077712  6.047232  6.068568  6.043409  6.038088  6.007607  5.011051  6.065701  6.062472  6.141720  6.211823  6.239256  6.327648  6.406896  6.464808  6.531864  7.771419  6.260592  6.147816  6.368029  6.504432  4.398237  7.043577  7.244915  7.234613  7.306056  7.515659  7.534656  8.372856  7.491984  7.519416  7.437120  7.455408  8.324088  8.284464  7.676768  7.001256  6.669024  7.805928  8.275320  8.823960  8.872728  8.592312  7.318248  8.269223  7.126224  7.696047  7.973568  8.211312  7.751064  5.301026  5.290257  5.284082  5.280987  7.714596        NA
 6.089904  5.547360  5.458968  5.257800  5.815204  6.156154  6.022396  5.744740  5.937504  6.489192  6.498336  6.560875  6.769608  6.397752  6.358128  6.318504  6.108192  6.059424  6.047232  6.038088  6.007607  5.937504  5.967984  5.977128  5.937504  5.977128  7.029312  5.358384  5.998464  5.964936  6.074664  6.132576  6.181344  6.248400  6.336792  6.336792  6.315456  6.342888  6.202680  6.208776  8.753986  6.367272  5.775960  6.819422  7.016773  7.181088  7.409688  7.568184  7.711672  8.301769  8.141208  8.132064  7.510272  6.888480  8.385048  7.781089  6.964680  5.821680  7.339584  7.488936  8.217407  8.756904  8.385048  8.403336  7.159752  6.248400  7.416608  7.287768  7.345680  7.623048  6.922008  5.289047  5.797296  7.818120  8.235696  8.361904        NA
 7.239000  6.519672  6.708648  6.458712  5.832335  5.538216  5.657318  6.773238  6.416454  6.537960  6.288023  6.288023  6.297168  6.297168  6.269736  6.156960  6.018212  5.949696  5.949696  5.958840  5.897880  5.888736  5.849112  5.888736  5.888736  5.888736  6.226011  7.072902  5.849112  5.907024  6.005692  6.108192  6.117336  6.199632  6.297168  6.379464  6.355080  6.364223  6.333744  6.352032  5.660136  7.277059  6.736080  6.854952  7.004304  7.193280  7.391400  7.584089  7.738872  7.897368  7.833360  7.725328  7.132320  5.919216  7.178040  6.065520  5.314513  7.342632  7.711440  8.029063  8.444658  8.476488  7.915656  7.464552  6.522720  5.410200  6.620256  7.138416  6.166104  5.281772  5.295014  5.297021  7.370064  7.717536  8.125968  7.964424        NA
 7.479792  7.367016  7.046976  7.098792  7.028688  6.678168  6.138672  5.968499  6.019800  6.019800  6.089904  6.156960  6.147816  6.178296  6.156960  6.094632  5.888736  5.809488  5.849112  5.867400  5.827776  5.818632  5.797296  5.779008  5.849112  5.942756  5.323559  5.739384  5.769864  5.867400  5.937504  5.983827  6.498336  6.458712  6.489192  6.489192  6.428232  6.446520  6.394704  5.607002  8.155481  8.436358  6.708648  6.845808  7.004304  7.193280  7.373112  7.571232  7.748016  7.958328  7.885176  6.705600  6.473952  5.391912  4.919472  5.034209  6.998208  7.754112  7.424928  7.763256  7.923479  7.909560  7.647432  7.687056  7.205519  5.873496  5.321808  7.188892  5.260511  5.266944  5.297729  7.793736  8.272272  7.431024  8.427720  8.668658  8.555736
 7.217664  7.117080  6.848856  6.687312  7.007352  6.909816  6.507480  6.248400  5.989320  6.053076  6.077712  6.164197  6.059424  6.047232  6.019800  5.962447  6.278880  6.449568  6.327648  5.468112  5.489448  5.519928  5.367528  5.407152  5.437632  4.888992  6.007607  6.038460  6.408869  6.327648  6.519672  6.528816  6.568439  6.659880  6.699504  6.678168  6.559296  6.477000  8.837469  4.300597  7.723632  6.382512  6.556520  6.729984  6.897624  7.156704  7.065264  6.922008  6.751320  6.528509  6.309360  6.147816  5.947294  4.821936  6.229272  6.699504  7.019544  7.266432  7.455408  6.824472  6.901204  7.225060  7.559040  7.178040  6.284976  5.339724  5.292698  5.296032  5.270978  5.302304  5.253501  6.696456  7.543800  7.531608  8.281416  9.058656  9.177528
 7.037832  6.897624  6.748272  6.739128  6.199632  6.489192  6.199632  5.858256  6.403848  6.528816  6.278880  5.907024  7.147560  6.199632  6.038088  6.077712  5.178552  5.498592  5.468112  5.489448  5.498592  5.547360  5.489448  5.455812  5.437632  8.607552  5.858256  5.867400  6.028944  6.187440  6.379464  6.426925  6.598920  6.729984  6.678060  6.608064  6.678168  6.489192  7.664518  6.231917  6.513175  6.472058  6.470904  6.641592  6.861695  7.138416  7.046976  6.833616  6.641592  6.510528  6.339840  6.117336  5.907024  5.635752  6.132576  6.611112  6.909816  7.168896  7.406640  5.986272  6.693408  6.982968  6.501384  5.419344  5.306875  5.265237  5.276872  5.278112  6.821424  7.909560  6.717792  7.936992  8.266176  8.653272  9.043416  9.171432  9.610344
 7.051579  7.248752  6.937248  6.739128  6.449568  6.278880  6.047232  5.919216  6.444897  6.147816  6.437376  6.077712  6.221447  6.139392  6.115720  6.138672  6.327648  5.437632  5.502096  5.507736  5.577840  5.594548  5.507736  5.498592  5.477256  5.787599  6.127712  5.818632  5.949696  6.138672  6.227064  6.339840  6.507480  6.598920  6.598920  6.507480  6.498336  8.897112  4.112361  6.729984  6.678168  6.614160  6.391765  6.541008  6.757897  6.956221  7.007352  6.836664  6.675120  6.263640  5.580888  5.160264  5.266944  5.547360  5.684520  5.812536  5.971032  6.059424  6.178296  5.486400  6.196584  5.934572  5.282739  5.454277  5.371715  6.336792  7.327392  7.403592  7.123176  7.181088  7.690104  7.677912  7.906512  8.305799  8.705088  8.391144  8.016953
 7.357872  7.558708  6.989064  6.687312  6.419088  6.227064  6.129528  5.739384  5.907024  5.998464  6.327648  6.217920  6.007607  5.919216  5.977128  5.977128  7.159752  5.568696  5.577840  5.617464  5.614909  5.586984  5.568696  5.507736  5.559552  5.477256  3.218688  5.718048  5.877944  5.998464  6.178296  6.288023  6.409944  6.577584  6.598920  6.507480  6.239256  4.454867  6.879336  6.751320  7.059168  6.696456  6.406896  6.364223  6.370081  6.431280  6.091058  5.962401  5.757918  5.455920  5.382768  5.230368  5.361432  5.577840  5.745480  5.794248  5.909702  5.992368  6.059424  6.270173  6.778752  6.394704  5.315274  5.338522  5.340008  6.099048  5.489448  6.525768  6.653784  6.614160  7.031736  7.360920  7.397496  7.446264  6.979374  6.793992  6.693408
 7.515348  7.427976  7.077456  6.729984  6.568439  6.327648  6.089904  5.748528  6.217920  6.089904  6.068568  5.919216  5.858256  5.739384  5.608320  5.617464  7.027246  5.546034  5.608320  5.657088  5.678424  5.699760  5.577840  5.586984  5.547360  5.547360  7.265258  5.647463  5.797296  5.949696  6.099048  6.129528  6.257544  6.489192  6.477000  6.367272  7.727257  6.918960  6.848856  6.830568  6.790944  6.809232  6.397752  6.393164  6.303264  6.320261  6.120384  5.989320  5.739384  5.577840  5.285567  5.282184  5.416918  5.529072  5.608320  5.678424  5.754624  5.983224  6.146914  6.812280  7.453176  7.086600  6.897624  5.544312  5.322820  5.325641  5.298796  6.547104  6.757416  7.135368  6.882384  6.720840  6.601968  5.940552  6.227064  6.486144  5.903976
 7.199376  7.108252  6.958584  6.678168  6.489192  6.208776  6.038088  5.867400  6.178296  6.129528  5.989320  5.928784  5.839968  5.727192  5.657088  5.529072  6.393778  5.608320  5.645103  5.718048  5.678424  5.748528  5.617464  5.629656  5.586984  5.529072  5.477256  5.033935  5.708904  5.839968  5.998464  6.066989  6.178296  6.589776  6.940696  4.155966  8.147304  6.901654  6.979920  6.964680  6.970776  7.120128  6.375468  6.404325  6.486045  6.275832  6.062472  5.852160  5.629656  5.529072  5.355336  5.355336  5.459808  5.782056  6.019800  6.239256  6.458712  6.736080  6.946041  6.842760  7.141464  6.699504  6.608064  6.529249  6.104304  5.672328  5.314288  6.199632  6.928104  6.867144  6.364223  5.576488  6.062472  5.641848  6.230112  6.318504  6.345936
 7.089648  7.107936  6.484528  6.437376  6.419088  6.449568  6.388608  6.438124  6.187440  6.099048  6.038088  5.919216  5.839968  5.779008  5.599176  5.577840  5.958840  5.617464  5.757672  5.718048  5.751324  5.757672  5.678424  5.657088  5.629656  5.599176  5.568696  5.071208  5.534742  5.739384  5.867400  5.977128  6.089904  6.367272  7.748016  7.658286  6.778752  6.827520  6.748272  6.766560  6.772656  6.903720  6.202135  6.300216  6.196584  6.245352  5.995416  5.903976  5.660136  5.458968  5.349240  5.308236  5.446776  5.772912  5.992368  6.220968  6.467856  6.726936  6.955536  6.748297  6.684264  6.220968  6.603106  6.837847  5.788152  5.745480  5.873496  5.733288  5.629656  5.538566  5.773155  5.894832  6.114288  6.215174  6.251448  6.019800  6.318504
 6.958584  6.909816  6.608064  6.659880  6.687312  6.629400  6.608064  6.568439  5.919216  5.928360  5.949696  5.919216  5.858256  5.809488  5.586984  5.468112  5.886280  5.678424  5.748528  5.779008  5.774660  5.797296  5.716434  5.757672  5.647944  5.657088  5.599176  4.944709  5.458968  5.727192  5.818632  5.907024  6.019800  6.498336  3.823946  7.057518  6.827520  6.862583  6.835167  6.726936  6.797040  6.803136  5.843016  5.800344  5.779008  5.718048  5.727192  5.745480  5.684520  5.650992  5.611368  6.038088  6.108192  6.105144  6.153912  6.102096  6.102096  6.059424  6.028944  6.266688  6.184392  6.044184  6.010656  5.769864  5.670257  5.657088  5.824728  5.894832  5.524463  5.843206  5.919216  6.052101  6.085373  5.518475  5.536443  6.120384  6.388608
 6.669024  6.757416  6.797040  6.809232  6.827520  6.858000  6.858000  6.809232  6.138672  6.156960  6.138672  5.835212  5.839968  5.748528  5.538216  5.498592  5.751744  5.279136  5.318760  5.309616  5.358384  5.393436  5.583400  5.547360  5.547937  5.519928  5.468112  4.337304  5.407152  5.599176  5.727192  5.849112  5.967984  6.559296  3.707856  6.867144  7.117080  7.159752  6.647688  6.598920  6.726936  6.705600  5.803392  5.742432  5.711952  5.608320  5.638800  5.617464  5.583936  5.602224  5.550408  6.099048  5.928360  5.970815  5.995416  5.974080  5.978674  5.910072  5.940552  5.806440  5.565648  5.873496  5.769679  5.580888  5.434628  5.585470  5.718048  5.555897  5.785104  5.514714  6.001512  6.089904  5.935065  6.105144  6.135624  5.992368  5.571744
 6.537960  6.568439  6.650217  6.519672  6.236207  6.236207  6.239256  6.297168  5.739384  5.839968  5.892958  5.963474  5.797296  5.687568  5.629656  5.419344  5.521631  5.138928  5.187696  5.327904  5.266944  5.327904  5.538511  5.538216  5.449824  5.437632  5.367528  5.943170  5.257800  5.498592  5.718048  5.867400  5.949696  7.319099  7.607808  7.090348  7.379208  7.348728  6.787896  6.531864  6.598780  6.626352  5.687747  5.644896  5.623560  5.602224  5.559552  5.547360  5.526024  5.504688  5.504688  6.010656  5.769864  5.839968  5.836920  5.815584  5.815584  5.733288  5.742432  5.917908  5.836920  5.605272  6.049002  5.132832  6.053328  6.042895  5.839968  5.897880  5.565648  5.925312  6.583680  5.586120  5.468112  5.797296  6.309468  6.153912  6.050428
 6.348984  6.348984  6.269736  5.998464  5.919216  5.888736  5.827776  5.818632  5.327904  5.449824  5.529072  5.647944  5.699760  5.608320  5.669280  5.428488  5.279136  5.148072  5.169408  5.248656  5.239512  5.318760  5.489448  5.468112  5.349240  5.367528  5.327904  4.169537  5.138928  5.458968  5.599176  5.707163  5.818632  5.989320  6.946873  3.675303  7.183961  7.046976  6.748272  6.333744  6.461760  6.517680  5.626608  5.577840  5.574792  5.483352  5.480304  5.449824  5.458968  5.398008  5.404104  5.242560  5.611368  5.629656  5.669280  5.657088  5.659050  5.623560  5.571744  5.321808  5.020056  5.284320  5.766816  6.013704  5.562600  5.562600  5.769864  5.568696  7.738872  7.985760  7.674864  7.571232  7.562088  5.839968  5.504266  6.126480  6.946392
 5.699760  5.687568  5.654040  5.654040  5.468112  5.458968  5.468112  5.498592  7.217664  5.437632  5.577840  5.699760  5.685710  5.626987  5.559552  5.468112  4.797552  5.117592  5.129784  5.209032  5.204176  5.257800  5.489448  5.388864  5.327904  5.279136  5.248656  8.019288  5.047488  5.288280  5.449824  5.617464  5.769864  5.897880  5.949696  6.059424  5.063878  6.937248  6.358128  6.255605  6.387138  6.424499  6.754378  5.809488  5.885688  5.970230  6.092952  6.038710  5.870448  5.867400  5.736336  4.846320  5.574792  5.745307  5.830812  5.691287  5.888736  6.047232  5.294376  4.864608  4.852416  5.660136  5.977128  5.266944  5.376672  5.364480  7.333488  6.211823  6.717792  7.748624  8.156448  8.144256  7.211568  7.540752  5.541264  7.699248  8.546592
 5.949696  5.855207  5.849112  5.757672  5.129784  5.044440  6.388608  6.888480  5.739384  5.407152  5.529072  5.608320  5.748528  5.647944  5.538216  5.449824  5.148072  5.059680  5.129784  5.138928  5.178552  5.199888  5.349240  5.257800  5.248656  5.218176  5.209032  5.108448  4.246204  5.218176  5.334076  5.521482  5.599176  5.739384  5.779008  5.879592  6.756707  4.648200  6.318504  6.266688  6.324600  6.263640  6.352032  6.199632  6.129528  6.084877  5.815584  5.864352  5.843016  5.779008  5.818632  5.836920  5.044440  5.355336  4.881305  4.840224  5.160264  5.766816  5.995416  5.224272  5.242560  4.843272  5.090160  5.367528  6.266688  7.317964  6.294120  6.715737  7.382256  7.949184  8.449056  8.424672  8.534400  8.683752  6.982968  8.531352  8.997696
 5.647944  5.199534  6.379464  7.098792  5.958840  7.277111  7.187184  7.309104  5.804325  5.266944  5.629656  5.642862  5.617464  5.489448  5.497937  5.209032  5.227320  4.968240  4.959096  5.017008  5.129784  5.047488  5.266944  5.232303  5.239512  5.157216  5.138928  5.099304  5.134063  4.075717  5.187696  5.371247  5.507736  5.577840  5.718048  5.827776  5.919216  3.396008  6.898433  6.203913  6.306312  6.263640  7.522464  6.877467  6.388608  6.190498  6.096000  5.876544  5.754624  5.843016  5.769864  5.815267  5.818632  5.833844  5.294376  4.865383  4.879848  4.910328  5.288280  5.827776  6.245352  7.373112  6.912864  4.851746  5.209032  5.696712  7.025640  7.973568  8.342376  8.220456  8.269223  8.107680  8.375904  8.424672  8.354568  8.180832  8.799576
 7.748016  7.717536  7.647432  5.291703  5.220103  5.157648  5.284224  7.208520  5.586984  5.547360  5.398008  5.519928  5.577840  5.647944  5.169408  4.959096  5.169408  4.919472  5.007864  5.029200  5.059680  5.087112  5.218176  5.187696  5.148640  5.099304  5.059680  5.099304  5.129784  5.187696  3.909706  5.148072  5.398008  5.449824  5.577840  5.687568  5.769864  7.738872  7.142592  6.412498  6.129528  6.155116  6.504432  6.684264  5.922264  5.791200  5.967984  5.775148  5.806440  5.797592  5.583936  5.760720  5.888736  4.858512  5.733734  6.324600  6.614160  5.452872  6.550152  7.248144  7.388352  7.495032  7.723632  7.272528  7.242048  6.559296  7.958328  7.744968  8.324088  8.061960  7.912608  7.799832  8.247888  8.686800  8.976360  8.964168  9.000744
 6.537960  6.437376  6.437376  6.297168  6.147816  7.553499  5.955308  6.717792  5.828114  5.038344  5.468112  5.559552  5.551149  5.337048  5.257800  4.898136  5.148072  4.919472  4.907280  4.959096  5.007864  5.017008  5.169408  5.108448  5.087112  5.047488  5.007864  5.007864  5.038344  5.178552  5.173345  3.808891  5.201691  5.327904  5.449824  5.577840  5.647944  5.827776  6.768394  6.654152  6.099048  6.129528  6.905103  6.534912  6.224016  5.960885  5.779008  5.687568  5.757672  5.696712  5.763768  5.791200  5.971032  4.828032  5.669280  6.745224  6.175248  5.382768  6.711696  7.040880  7.138416  7.735824  7.994904  7.894320  7.671816  7.790688  7.900416  7.778496  7.796784  6.544056  6.763512  8.004016  8.540496  8.738616  8.796528  8.714232  8.842248
 6.797040  6.678168  6.638544  6.498336  6.367272  6.168231  6.130692  5.897880  6.068568  5.678424  5.547360  5.317054  5.586984  5.388864  5.428488  5.309616  5.068824  4.837176  4.858512  4.888992  4.945281  4.977384  5.129784  5.013194  5.007864  4.998720  4.928616  4.949952  4.998720  5.108448  5.108448  6.809629  5.077968  5.199888  5.326966  5.407152  5.529072  5.608320  5.769864  3.680438  6.809232  6.028944  6.386361  6.621613  6.153912  5.974080  5.623560  5.449824  5.788152  5.708904  5.715000  5.794248  4.852416  5.838728  6.559296  6.016752  5.547360  5.486400  6.044184  5.742432  6.940296  7.427976  7.257288  6.635496  7.412736  7.461504  7.071360  5.788152  5.183426  6.897624  7.876032  8.022151  8.570976  8.470392  7.979664  7.257288  7.284720
 6.787896  6.629400  6.568439  6.449568  6.296574  6.166346  6.077712  5.958840  5.626608  5.647944  5.218176  5.446776  5.458968  5.349240  5.419344  5.288280  5.318760  4.797552  4.828032  4.867656  4.885944  4.949952  4.995672  5.007864  4.928616  4.867656  4.858512  4.968240  4.968240  5.065776  5.114544  5.196840  3.709910  5.059680  5.196840  5.349240  5.407152  5.547360  5.638800  5.757672  3.784273  6.572833  6.650736  6.480048  6.309845  5.196840  5.803392  5.721096  5.769864  5.669280  5.638800  5.754998  5.263896  5.852160  5.422392  4.912846  4.902885  4.925568  4.925568  6.022848  6.001512  6.611112  5.340096  6.958584  6.297168  4.925568  4.922520  7.174161  7.708392  7.616952  8.116824  8.016240  8.061960  7.909646  6.611112  4.958744  5.248656
 6.669024  6.577584  6.589776  6.397752  6.288023  6.099799  5.958840  5.876544  5.818632  5.675376  5.157216  5.367528  5.367528  5.209032  5.367528  5.257800  5.314006  4.995672  5.044440  4.937760  6.467856  5.148072  4.959096  4.879848  4.779264  4.820389  4.797552  4.879848  4.907280  4.989576  5.108448  5.157216  7.708392  5.395957  5.077968  5.218176  5.327904  5.446776  3.633389  5.699760  7.217664  5.770410  6.650736  6.181344  6.019800  5.797296  6.074664  4.855687  5.772912  5.782056  5.818632  4.874446  4.916424  5.404104  4.852416  4.962144  4.964569  4.925370  4.937760  5.013960  4.904232  5.782056  4.901184  4.919472  4.936192  6.214872  6.705600  7.202424  7.351776  6.580632  6.489192  6.376416  6.120776  5.824728  5.043214  6.739128  8.449056
 6.647688  6.547104  6.449568  6.278880  6.129528  6.019800  5.903976  5.687568  5.608320  5.608320  4.767072  5.318760  5.309616  5.044440  5.391803  5.237031  5.209032  5.017008  4.928616  4.937760  4.968240  4.928616  4.885944  4.818888  4.809744  4.788408  4.678680  4.885944  4.907280  4.937760  5.038344  5.099304  5.169408  4.352597  4.907280  5.065776  5.169408  5.327904  5.379720  3.914387  6.871368  5.638800  6.140756  6.446228  5.769864  5.827776  5.693664  5.217146  5.693664  5.681472  5.672328  5.650992  5.657088  5.507736  4.863787  5.329495  5.492496  5.910072  6.568439  4.946904  4.995672  4.884995  4.912533  4.922520  6.550152  4.876800  4.921607  4.885944  4.882896  4.891897  4.889107  5.958840  5.398008  6.986016  8.399523  9.070848  8.872653
 6.559296  6.449568  6.367272  6.257544  6.117336  5.998464  5.839968  5.638800  6.156185  5.559552  5.266944  4.258056  4.669536  5.519964  5.358384  5.337048  5.065776  4.898136  4.898136  4.919472  5.029200  4.928616  4.907280  4.828032  4.837176  4.767072  4.718304  4.748784  4.837176  4.907280  4.928616  5.029200  5.099304  4.022944  4.818888  4.949952  5.148072  5.288280  5.398008  6.431764  5.949696  6.023259  5.907024  6.004560  5.748605  5.782056  5.590032  5.556504  5.695897  4.838444  5.483352  5.391912  5.209032  5.671368  5.416296  4.834128  5.268629  4.849686  6.050280  6.717792  6.077712  6.306312  7.345680  6.092952  7.375365  8.098536  8.472089  7.827264  6.214872  6.132576  7.982712  8.010144  8.388096  9.116568 10.076689  9.454896  9.732264
 6.236207  6.028944  6.007607  5.949696  6.068568  5.958840  5.806440  5.748528  6.717792  5.294376  5.129784  4.907280  5.239512  5.380211  5.077968  5.218176  5.017008  4.849368  4.858512  4.849368  4.949952  4.928616  4.885944  4.879848  4.798568  4.788408  4.696968  4.748784  4.718304  4.837176  4.928616  5.038344  5.114544  5.239512  4.607469  4.779264  5.059680  5.169408  5.266944  4.532631  6.474368  4.258056  6.248400  5.958158  5.684520  5.861304  5.721096  4.919472  5.318760  4.856812  5.544312  5.711952  4.831977  5.708904  5.919216  6.007607  6.665976  5.544312  5.803392  7.220712  7.927848  6.906768  7.915656  7.275576  7.763256  7.760208  8.141208  8.409432  8.497824  7.235952  7.592568  8.351520  9.061704  9.342794  9.303638  9.226296  9.113520
 6.178296  6.217920  6.208776  6.409944  6.208776  6.007607  5.902467  5.788152  6.809232  5.288280  5.266944  5.169408  4.977384  5.196840  4.987944  5.007864  5.031088  4.797552  4.779264  4.779264  4.937760  4.907280  4.928616  4.828032  4.809744  4.809744  4.727448  4.779264  4.779264  4.797552  4.937760  4.995672  5.059680  5.065776  5.174294  4.328160  5.279136  5.089331  5.967984  6.675632  6.147816  3.532318  6.195356  5.748528  5.855641  5.413248  5.553456  4.863751  5.818632  5.625453  5.907024  6.193536  5.663184  5.462016  6.239256  7.120128  7.388352  6.656832  7.342632  7.421880  8.040624  8.330184  8.007096  7.994904  7.985760  8.083296  7.854128  7.624370  7.927848  8.497824  8.305799  8.394192  8.491728  9.070848  9.119616  8.509367  8.378839
 6.367272  6.467856  6.797040  6.783777  6.068568  5.919216  5.827776  5.748528  7.059168  5.474208  5.239512  5.471032  5.029200  5.065776  5.077968  4.907280  4.767072  3.998976  4.498848  5.044440  5.739384  4.433433  3.914599  4.117848  5.178552  4.700485  6.117336  6.477000  6.589776  6.748272  6.748272  6.798952  6.909816  6.967728  7.328197  7.949184  3.717986  3.419446  3.209212  7.769352  7.708392  6.928104  5.980176  5.879592  6.281477  5.343076  5.078560  5.289637  5.847888  5.094842  5.981101  6.288023  6.525768  6.662928  6.922008  7.199376  7.409688  7.476744  7.534656  7.595616  7.693152  7.772400  7.720584  7.748016  7.705344  7.665720  7.702296  5.440680  7.470648  7.488936  6.906768  7.336536  7.464074  7.071360  7.202424  6.623706  6.341722
 6.507480  6.419088  6.739128  6.227064  5.654040  5.323493  5.227320  5.852685  5.468112  5.474208  5.967984  6.589776  4.706622  5.065776  5.059680  5.148072  5.108448  5.114544  5.138928  5.169408  5.077968  5.138928  5.065776  5.059680  5.065776  3.288792  4.547616  4.568952  4.709160  4.779264  4.858512  4.939314  5.044440  5.099304  5.178552  7.217664  5.919216  3.822469  4.989576  4.727448  5.269107  4.949952  5.458968  5.422392  5.300472  5.196840  4.843797  5.654040  4.934712  5.132832  6.039449  6.367272  6.498336  6.775704  7.013448  7.223760  7.080504  7.208520  7.248144  7.275576  7.357186  7.451783  7.440168  7.431024  7.388352  7.406640  6.403848  4.724400  4.703064  4.861560  5.849112  5.788152  6.284976  7.043928  7.741920  7.601712  8.589264
 5.876544  5.724144  5.586984  5.407152  5.266944  5.129784  5.029200  5.379720  5.369964  5.599176  6.598920  5.949696  5.318760  5.059680  4.990262  5.015895  5.007864  5.017008  4.928616  4.977384  4.937760  4.885944  4.989576  4.898136  4.885944  5.087112  4.498848  4.657344  4.718304  4.777979  4.858512  4.891222  4.989576  5.099304  5.157216  5.468112  7.998594  5.849112  4.919472  4.779264  8.226080  6.138672  5.468112  5.391912  5.242560  5.138928  4.841608  4.995672  4.939650  5.294376  5.023104  4.931664  5.867400  6.367272  6.797040  7.182905  6.592824  6.851142  6.918960  7.007352  7.056120  7.174992  7.132320  7.171944  6.598920  4.685665  5.001029  8.144256  6.842760  7.659155  8.671560  9.116568  9.086088  9.275064  9.165336  9.768416  9.844332
 5.821523  5.638800  5.586984  5.367528  5.318760  5.209032  5.169408  5.419344  5.245608  5.044440  4.797552  4.739640  4.709160  4.797552  4.849368  4.898136  4.907280  4.914669  4.767072  4.828032  4.777750  4.797552  4.739640  4.788408  4.748784  5.329395  4.578096  4.578096  4.687824  4.727448  4.727448  4.898136  4.937760  5.108448  5.138928  5.227320  7.657457  5.887001  4.428744  4.427671  7.388352  3.102726  5.407152  5.294376  5.202936  5.102352  5.059680  5.218715  4.935319  4.904232  5.091177  5.086434  5.940552  6.248400  6.717792  7.086600  7.545608  5.062728  6.580632  5.572101  4.643830  4.724319  5.301909  4.703064  4.701432  8.253983  8.638032  8.616696  8.634984  8.613648  8.461248  8.439912  8.729472  8.936736  9.165336  9.445752  9.732264
 5.811743  5.669280  5.533752  5.367528  5.218176  5.138928  5.077968  4.968240  4.939915  4.919472  4.788408  4.748784  4.629912  4.718304  4.748784  4.727448  4.748784  4.718304  4.727448  4.704599  4.662295  4.709160  4.739640  4.629912  4.678680  5.187696  4.517136  4.578096  4.639056  4.709160  4.696968  4.788408  4.919472  4.960914  5.044440  5.169408  5.266944  3.731509  4.748784  4.436118  4.997849  6.949440  6.227064  5.249418  5.193792  5.084064  4.980432  4.847780  4.866951  4.407408  4.986528  6.132576  6.431280  6.711696  7.095152  4.594211  4.557344  5.803392  4.739446  6.881638  7.299960  6.227064  6.245352  8.446008  8.232648  8.241793  8.229600  8.229600  8.238744  8.257032  8.665464  8.263128  8.500872  8.729472  9.076944  9.415272  9.683496
 5.818632  5.687568  5.468112  5.358384  5.257800  5.148072  5.077968  4.989576  4.928616  4.858512  4.818888  4.718304  4.639056  4.599432  4.639056  4.657344  4.547616  4.678680  4.608576  4.559808  4.529328  4.538472  4.529328  4.517136  4.538472  4.517136  4.459224  4.517136  4.657344  4.678680  4.764318  4.797552  4.907280  4.937760  5.059680  5.108448  5.257800  5.327904  4.888992  5.007864  4.959096  5.739384  5.827776  5.209032  5.126736  5.065776  4.983480  5.812536  4.726678  4.739640  4.439459  4.462094  6.013704  6.492240  6.102096  4.557492  7.059168  6.687312  6.920866  7.132320  7.382256  8.001000  7.839456  7.836408  7.845552  7.854696  7.860792  7.799832  7.818120  7.796784  7.994904  8.013192  8.363712  8.491728  8.641080  8.827007  9.067800
 5.797296  5.654040  5.474208  5.337048  5.196840  5.108448  5.017008  4.983495  4.922217  4.879848  4.748784  4.739640  4.617720  4.995672  4.849368  4.858512  4.867656  4.907280  4.913858  4.885944  4.885944  4.809744  4.788408  4.867656  4.809744  5.288280  4.477512  4.578096  4.669536  4.709160  4.757928  4.809744  4.907280  4.949952  5.007864  5.087112  5.187696  5.919216  4.959096  4.828032  5.489448  5.699760  5.718048  5.209032  5.099304  5.017008  4.956048  4.854322  4.440936  4.459224  4.417687  4.657344  4.599259  6.092952  4.953000  4.565799  6.428232  6.617208  6.883593  7.153656  7.382256  7.658947  7.348728  7.418832  7.406640  7.406640  7.403592  7.382256  7.360920  7.409688  7.607808  8.446008  8.424672  8.452104  8.421623  8.418576  8.418576
 5.867400  5.577840  5.468112  5.257800  5.129784  5.077968  5.017008  5.017008  4.900650  4.858512  4.809744  4.718304  4.629912  4.730897  4.727448  4.657344  4.739640  4.678680  4.797552  4.748784  4.757928  4.748784  4.657344  4.757928  4.678680  4.727448  4.437888  4.538472  4.587240  4.669536  4.709160  4.849368  4.898136  4.937760  4.984959  5.044440  5.169408  3.939129  4.959096  4.739640  5.716956  5.647944  5.645123  5.132832  5.068824  4.568952  4.828032  4.829647  5.056179  4.596665  4.617184  4.592317  4.581447  4.592856  4.569873  4.572000  6.600000  6.650736  6.836664  7.156704  7.446264  7.653528  6.985331  6.979920  7.019544  7.016496  7.004304  6.964680  6.952488  6.979920  6.998208  8.177784  8.113024  8.130725  8.132064  8.071104  8.110728
 5.876544  5.538216  5.318760  5.245608  5.099304  4.767072  4.629912  4.634168  4.574863  4.538472  4.489704  4.407408  4.309872  4.613060  4.559808  4.587240  4.568952  4.648200  4.629912  4.639056  4.648200  4.578096  4.548765  4.599531  4.547616  4.529328  4.468368  4.539811  4.578096  4.629912  4.797552  4.837176  4.867656  4.919472  5.077968  5.108448  5.245608  6.101645  5.349240  5.568696  5.358384  5.507736  3.944112  5.316642  5.221224  5.181600  5.160264  5.117592  5.135880  4.577931  4.585134  4.588685  4.614172  4.651564  5.687568  5.934456  6.531864  5.532120  7.129272  7.138416  7.376160  7.223760  6.675120  5.043913  6.970776  6.848856  6.736080  5.004816  6.955536  7.662672  7.760208  7.848600  7.839456  7.857744  7.845552  7.854696  7.860792
 6.119901  5.559552  5.437632  5.239512  5.059680  4.757928  4.739640  4.629912  4.608576  4.507992  4.498848  4.437888  4.288536  4.507992  4.437888  4.477512  4.437888  4.468368  4.428744  4.466042  4.428744  4.459224  4.489704  4.428744  4.459224  4.428744  4.428744  4.498848  4.648200  4.657344  4.739640  4.809744  4.867656  5.038344  4.995672  6.909816  3.648687  5.209032  5.437762  5.498592  5.529072  2.943017  5.437632  5.324856  5.324856  5.312664  5.321808  5.349240  5.327904  4.596384  4.557283  4.651248  4.887677  4.706217  4.959096  4.612605  4.566199  4.577025  5.054402  5.377958  6.409944  6.787896  5.104726  4.965192  6.632448  5.519928  5.788152  7.507224  7.525512  6.504432  7.162800  7.562088  7.589520  7.537704  7.616952  7.574280  7.574280
 6.570717  5.499296  5.367528  5.196840  5.099304  4.779264  4.718304  4.599432  4.559808  4.512379  4.447032  4.441649  4.379976  4.428744  4.319016  4.309872  4.349496  4.349496  4.310321  4.288536  4.297680  4.337304  4.248912  4.315923  4.337304  4.248912  4.437888  4.578096  4.657344  4.687824  4.779264  4.828032  4.977384  5.065776  5.148072  5.867400  5.876544  5.266944  5.327806  5.352384  6.059424  5.559552  5.647944  5.507736  5.455920  5.474208  5.522976  5.519928  5.608320  5.266944  5.885688  5.583936  4.623816  4.624397  4.629866  4.608873  4.599535  4.602667  5.602224  6.120384  6.278880  5.257800  4.754315  6.705600  6.044184  4.611624  6.800088  6.699504  4.608576  5.394960  7.065264  7.394448  7.297945  7.269480  7.269480  7.326233  7.396326
